# .PCD v0.7 - Point Cloud Data file format
VERSION 0.7
FIELDS x y z intensity distance sid
SIZE 4 4 4 4 4 4
TYPE F F F F F F
COUNT 1 1 1 1 1 1
WIDTH 828
HEIGHT 1
VIEWPOINT 0 0 0 1 0 0 0
POINTS 828
DATA ascii
0.34861001 -0.62062001 -1.3200999 20 1.39 537
0.37340748 -0.62101251 -1.3209 20.5 1.3989999 546.5
0.39128372 -0.62084377 -1.3218876 18.75 1.4058751 553.25
0.40330499 -0.62085497 -1.32055 19 1.4089999 558
0.42896751 -0.62038249 -1.3222251 16.5 1.4195 567.5
0.47389999 -0.62089664 -1.3206667 18 1.4356667 584.33331
0.48322201 -0.62098402 -1.3215799 17.6 1.4402001 587.59998
0.51565999 -0.62076497 -1.3204 20 1.4525 599.5
0.52741504 -0.62054998 -1.3217 15 1.4584999 603.5
0.55061287 -0.62052864 -1.3224143 15.714286 1.4691429 611.57141
0.56642431 -0.62096149 -1.3218143 14.857142 1.475857 617.14288
0.58681995 -0.62051004 -1.3210334 14.666667 1.4843334 624.33331
0.61021006 -0.62077117 -1.3219666 13.111111 1.4961112 632.11108
0.63152999 -0.62188751 -1.3220084 13.833333 1.5067501 639.16669
0.65073001 -0.62139457 -1.3225846 14.923077 1.5163846 645.46155
0.66624999 -0.62140173 -1.3218 14.333333 1.5235 650.66669
0.6919027 -0.62164551 -1.3213909 14.181818 1.5362728 659
0.70770746 -0.62200743 -1.321375 13.5 1.5445833 664
0.7293427 -0.62146425 -1.3223053 12.736842 1.5564737 670.6842
0.74937534 -0.62160152 -1.3225 13.230769 1.5673846 676.84613
0.76938415 -0.62238878 -1.3218943 12.705882 1.5781176 683
0.7892645 -0.62118095 -1.322909 12.545455 1.5894547 688.90912
0.80814707 -0.62242711 -1.3220571 12.285714 1.5998571 694.57141
0.82067001 -0.62418497 -1.32265 12 1.608 698
-1.0085756 -0.60427552 -1.3272533 12.311111 1.6011111 2.9777777
-0.99067855 -0.60437822 -1.3285593 12.644068 1.5920169 8.525424
-0.96966141 -0.60470903 -1.3273779 12.677966 1.5795256 14.644068
-0.95437247 -0.60500211 -1.3271586 11.517241 1.571069 19.275862
-0.92629796 -0.60376 -1.3292 6.1333332 1.5570666 28.200001
-0.91037923 -0.60452646 -1.328455 12.133333 1.548333 33.116665
-0.89006519 -0.60425502 -1.3290762 13.661017 1.5381528 39.64407
-0.87024212 -0.60499138 -1.3285911 13.205129 1.5279105 45.987179
-0.8495928 -0.60394716 -1.3265499 13.285714 1.5155715 52.285713
-0.8301239 -0.60223836 -1.3274 12 1.5060556 58.722221
-0.80909753 -0.60508066 -1.3283832 12.066667 1.4977497 66.133331
-0.79025674 -0.60574651 -1.3286299 11.679012 1.4893333 72.604935
-0.77026755 -0.60543853 -1.3294375 12.053333 1.48068 79.559998
-0.74964058 -0.60481882 -1.3291909 12.605263 1.470987 86.631577
-0.7297734 -0.60502422 -1.3294832 12.615385 1.4625899 93.666664
-0.70962512 -0.60528827 -1.3287592 13.277108 1.4534935 100.73494
-0.68946469 -0.60588789 -1.3284276 13.65 1.4450624 107.975
-0.6699664 -0.60541207 -1.3294683 12.829268 1.4378654 115.18293
-0.64995867 -0.60535222 -1.3283886 13.770115 1.4290808 122.37931
-0.63013858 -0.60548466 -1.3300892 14 1.4230212 129.98936
-0.60946977 -0.60557878 -1.3284627 15.255814 1.4140584 137.53488
-0.59026796 -0.60608518 -1.3290417 13.604167 1.4079061 144.92708
-0.56983489 -0.60534221 -1.3291366 14.229885 1.4006671 152.72414
-0.54946977 -0.60578495 -1.3292165 14.32967 1.3941649 160.63736
-0.52939653 -0.60600859 -1.3293146 15 1.3879546 168.5
-0.50994539 -0.60605872 -1.3286808 15.340425 1.3814894 176.09575
-0.49013498 -0.60597974 -1.3290195 16 1.3759587 184
-0.47026497 -0.60579944 -1.3295752 15.591398 1.3708284 192.01076
-0.45034647 -0.60659844 -1.3293177 14.708333 1.3656355 200.0625
-0.42958072 -0.60675561 -1.3294351 14.431373 1.3605782 208.52942
-0.41032869 -0.60691839 -1.3299276 15.591837 1.3565001 216.46939
-0.39012325 -0.60660714 -1.3305472 15.339622 1.3524054 224.83963
-0.36995366 -0.60749155 -1.3295246 15.830189 1.3476224 233.16037
-0.35023126 -0.60784441 -1.32965 15.833333 1.3440313 241.41667
-0.33006671 -0.60793072 -1.329401 15.309734 1.3401859 249.86726
-0.30974469 -0.60779595 -1.3299826 16.342857 1.3372669 258.4762
-0.28965497 -0.60744435 -1.3303998 16.530973 1.3344512 267.00885
-0.27012306 -0.60857952 -1.3297814 16.776699 1.3316796 275.32037
-0.25015032 -0.60892546 -1.329568 15.581819 1.3291814 283.85455
-0.23014706 -0.60870272 -1.330727 16.39604 1.3279804 292.47525
-0.21055043 -0.60872281 -1.3293279 17.617392 1.3249046 300.85217
-0.18906783 -0.60853523 -1.330616 17.142857 1.324324 310.15237
-0.17046435 -0.60937381 -1.3299065 16.747475 1.3228582 318.18182
-0.15000761 -0.60909426 -1.330014 16.192982 1.3218682 327.0351
-0.12912507 -0.60894883 -1.3310618 17.420561 1.3220838 336.09344
-0.10977091 -0.60946941 -1.3306578 17.450981 1.3216074 344.48038
-0.089598432 -0.61012644 -1.3295124 18.508772 1.3207982 353.22806
-0.069398336 -0.61007458 -1.3293786 18.084034 1.3209249 361.99161
-0.050139464 -0.60993052 -1.3302872 18.307692 1.3222312 370.32693
-0.029974567 -0.61023295 -1.331146 19.234783 1.3240088 379.03479
-0.0094666602 -0.61006892 -1.3297316 18.811882 1.3238513 387.93069
0.010079335 -0.61035919 -1.3305594 18.091743 1.3261564 396.33026
0.030456562 -0.61113083 -1.3297865 16.700001 1.3275909 405.10834
0.049528841 -0.61067265 -1.3305869 18.819048 1.3300762 413.26666
0.070053406 -0.61093432 -1.33047 18.224298 1.3324956 422.03738
0.090026699 -0.61157775 -1.3298678 18.731182 1.3348708 430.55914
0.10981835 -0.61142594 -1.3304198 19.258621 1.3382239 438.92242
0.13012774 -0.61227417 -1.3297771 20.566038 1.341283 447.50943
0.15036705 -0.61266971 -1.3301159 19.762377 1.3453267 455.97031
0.17032093 -0.61273664 -1.3300277 20 1.3490853 464.30475
0.18997404 -0.61227304 -1.3307621 20.16 1.3535805 472.42001
0.21022117 -0.61260736 -1.3298559 19.17647 1.3573532 480.83334
0.23003998 -0.61323333 -1.3294235 19.979382 1.3618454 488.96909
0.25012672 -0.61347365 -1.3301516 19.835052 1.3675463 497.06186
0.26941073 -0.61346817 -1.3294609 19.752577 1.3719587 504.91751
0.28921568 -0.61308783 -1.3298347 19.76087 1.3775545 512.83698
0.30932385 -0.61348569 -1.330076 20.02174 1.3836958 520.78259
0.32997769 -0.61320776 -1.3308803 19.384615 1.3904839 528.84613
0.34975269 -0.61356944 -1.3306032 18.273684 1.3965898 536.57892
0.37022373 -0.61393535 -1.3300136 17.685392 1.4029101 544.55054
0.39019257 -0.61363488 -1.3314171 16.421053 1.4107679 552.04211
0.41035375 -0.61417443 -1.3306296 17.291666 1.4173957 559.76044
0.43013841 -0.61384279 -1.330637 18 1.424471 567.21179
0.44952106 -0.61381334 -1.3299077 17.505882 1.4311413 574.51764
0.46989498 -0.61435026 -1.3297713 16.735632 1.4391382 582
0.49025017 -0.61414337 -1.3305069 17.069767 1.4478023 589.31396
0.50978309 -0.61390555 -1.330773 16.4 1.4559646 596.31763
0.52991611 -0.61414289 -1.330465 16.051949 1.4643117 603.50647
0.54978555 -0.61422014 -1.3298146 16.722891 1.4724214 610.59033
0.57116222 -0.61434394 -1.330413 16.51948 1.4824675 617.90912
0.58969164 -0.61455613 -1.3297851 15.459459 1.4904865 624.35138
0.60981691 -0.61481631 -1.3307339 14.378378 1.5007162 631
0.63057148 -0.61493045 -1.3318541 14.473684 1.5115395 637.75
0.6495434 -0.61431044 -1.3313552 14.567568 1.5201352 644.14862
0.67024893 -0.61532402 -1.331476 13.76 1.5308801 650.79999
0.69059002 -0.61549908 -1.3312618 13.605634 1.5410703 657.36621
0.70964378 -0.61529541 -1.330719 12.647058 1.5503969 663.52942
0.73048127 -0.615143 -1.3325181 11.540983 1.5626726 669.75409
0.74972874 -0.61547524 -1.3312839 12.716418 1.5721191 675.89551
0.77064806 -0.6155014 -1.3316386 13.365079 1.5837623 682.20636
0.78948194 -0.61507332 -1.3313819 12.229508 1.5938196 687.95081
0.81019026 -0.61562532 -1.3311467 11.939394 1.6054397 694.09088
0.82313645 -0.61366355 -1.3341643 11.571428 1.6143571 697.5
-1.0208 -0.596995 -1.33915 11 1.6145 1
-1.0104316 -0.5984447 -1.3357736 11.789474 1.6065788 3.5263157
-0.99162614 -0.59866458 -1.3373616 12.769231 1.5972308 9.3846149
-0.97031146 -0.59817052 -1.3369349 12.3 1.5849 15.65
-0.95248067 -0.59678119 -1.3358942 11.294118 1.5738821 20.764706
-0.92803746 -0.59264356 -1.3341349 10.2 1.5579501 27.65
-0.91225624 -0.59614658 -1.3351783 9.478261 1.5516087 33.04348
-0.89178383 -0.59865689 -1.3367846 13.384615 1.5430769 40
-0.86537802 -0.59826404 -1.3376601 14 1.5302 48.599998
-0.84802467 -0.59459651 -1.3295352 14.588235 1.5138235 52.588234
-0.83001697 -0.59579343 -1.3344351 12.9 1.5093 59.450001
-0.80934095 -0.59555334 -1.3329573 13.904762 1.4980953 66.095238
-0.7881875 -0.59744495 -1.3356415 12.833333 1.4910001 73.833336
-0.77302569 -0.59882861 -1.3370857 11.714286 1.4857143 79.35714
-0.75046843 -0.59895998 -1.33815 13.666667 1.4765002 87.333336
-0.72958195 -0.59866399 -1.3392799 12.4 1.4682 94.800003
-0.70519245 -0.59850252 -1.3380001 13.5 1.45675 103.25
-0.68917817 -0.59867597 -1.3359354 14.117647 1.4484704 108.70588
-0.67337799 -0.59808004 -1.3375311 13.875 1.4431875 114.625
-0.64868093 -0.5980491 -1.3392272 14.363636 1.434909 123.90909
-0.62990499 -0.59810752 -1.3383332 13.833333 1.4270831 130.75
-0.61196184 -0.59848124 -1.337975 14.875 1.4203126 137.4375
-0.59178001 -0.59873432 -1.3373998 14.285714 1.4127142 145
-0.57103777 -0.5978989 -1.3383666 14.444445 1.4061111 153
-0.54928505 -0.59886497 -1.33722 13.8 1.3983001 161.3
-0.53035748 -0.59934503 -1.3376625 15.75 1.392875 168.75
-0.50895554 -0.59914446 -1.3383555 14.888889 1.3868889 177.22223
-0.49662501 -0.59907496 -1.337525 15.5 1.3824999 182
-0.47256002 -0.5992167 -1.3381 16.666666 1.3763332 191.66667
-0.44430998 -0.59883171 -1.3378501 15 1.3684999 203
-0.42811999 -0.59895664 -1.3387333 18 1.3653332 209.66667
-0.40783 -0.59871 -1.3394001 14 1.3609999 218
-0.38744998 -0.59939003 -1.3384666 14.666667 1.3559999 226.33333
-0.35136333 -0.59860671 -1.3391333 15.333333 1.349 241.33333
-0.33273 -0.59928 -1.3371 18 1.344 249
-0.31143999 -0.59952003 -1.3376 16 1.341 258
-0.29019001 -0.59961998 -1.3378 22 1.3380001 267
-0.93208998 -0.56945997 -1.3328668 14.666667 1.5513334 24.333334
-0.90799862 -0.57008994 -1.3292285 8.8571424 1.5358572 31.285715
-0.85275 -0.57973999 -1.3358999 14 1.516 51
-0.78808993 -0.56805575 -1.3297644 11.428572 1.4757856 70.785713
-0.77895498 -0.56102502 -1.3271999 22 1.467 73
-0.92207998 -0.55219001 -1.3376 16 1.544 27
-0.90205997 -0.55944002 -1.3328 12 1.5319999 33
-0.89525002 -0.54661661 -1.3316666 7.3333335 1.5233332 34
-0.84253001 -0.54482001 -1.33135 14 1.4955 51
-0.77686799 -0.557567 -1.3297399 17.200001 1.4669001 73.900002
-0.90888 -0.53522998 -1.3382 16 1.5319999 30
-0.88718337 -0.53042001 -1.3312999 4 1.5136666 35.333332
-0.83447003 -0.52765661 -1.3231333 13.333333 1.4793334 51
-0.70365 -0.52164 -1.339 26 1.4299999 99
-0.69827998 -0.52045 -1.3398 26 1.428 101
-0.89103001 -0.51567 -1.3312 4 1.511 33
-0.87080503 -0.503245 -1.3329 13 1.498 39
-0.83280998 -0.50739002 -1.32795 30 1.476 51
-0.70843357 -0.50831038 -1.3349961 23.764706 1.4243532 95.803925
-0.69044322 -0.50747168 -1.3353459 26.126984 1.4167461 102.38095
-0.67823333 -0.5041011 -1.3374 25.111111 1.4123334 107
-0.86631 -0.48342001 -1.3269 12 1.485 38
-0.83280665 -0.49873999 -1.3312334 13.333333 1.476 51
-0.81992 -0.48598 -1.334 24 1.4680001 55
-0.72088999 -0.48006999 -1.3256 12 1.413 88
-0.70827204 -0.49091032 -1.3263834 23.90164 1.4114919 93.39344
-0.69001371 -0.48974299 -1.3263024 27.012659 1.4032402 100.02531
-0.67756569 -0.48856464 -1.3322958 23.066668 1.4027779 105.53333
-0.84667504 -0.46775502 -1.3350999 2 1.477 45
-0.82432997 -0.4711 -1.3256 10 1.459 51
-0.72523999 -0.47578669 -1.3305999 14.666667 1.4178333 87
-0.70327997 -0.479505 -1.3201499 25 1.4005001 93.5
-0.6904133 -0.47857332 -1.3208833 26.666666 1.3953333 98.333336
-0.67692041 -0.47062439 -1.3292139 20.491228 1.3943331 104.24561
-0.83376002 -0.45852 -1.3365 2 1.469 49
-0.81700343 -0.45598665 -1.3263999 20 1.4516667 52.666668
-0.67637014 -0.4508096 -1.326434 20.863636 1.3858182 102.88636
-0.80563998 -0.43002 -1.3265001 30 1.439 55
-0.74246001 -0.43239999 -1.3293999 4 1.4119999 78
-0.68135995 -0.42939714 -1.3343 14.571428 1.3885715 101.14286
-0.67834109 -0.43143889 -1.3281684 17.263159 1.382579 101.36842
-0.80747592 -0.404322 -1.32626 13.2 1.433 52.799999
-0.74671996 -0.41221499 -1.3275501 18 1.4070001 75
-0.68269336 -0.40830553 -1.3284221 14.888889 1.3783333 98.555557
-0.67874998 -0.41444403 -1.32394 14 1.3743999 99.599998
-0.80435997 -0.39862001 -1.3286999 10 1.432 54
-0.78789496 -0.38706499 -1.3333499 9 1.425 60
-0.68578142 -0.39290428 -1.3349714 7.7142859 1.3812857 97.714287
-0.67923665 -0.39710668 -1.3346667 20.666666 1.3793334 100.33334
0.41174856 -0.38305926 -1.3386499 27.428572 1.3498571 571.42859
0.42716599 -0.38297501 -1.3390801 25.799999 1.3561 577.40002
-0.80514002 -0.36365998 -1.32445 18 1.4205 51
-0.78328007 -0.37464666 -1.33 12 1.4169999 60.333332
-0.77726001 -0.36862001 -1.3399 12 1.421 64
-0.68124998 -0.36013001 -1.3243001 34 1.362 96
0.40973371 -0.36957037 -1.3328992 26.164948 1.3405982 572.1134
0.42942339 -0.37027732 -1.3330082 24.134832 1.3484386 579.80896
0.44168377 -0.36939999 -1.3353624 24.25 1.3551251 584.25
-0.80356002 -0.35222998 -1.3247 23.333334 1.4173335 51
-0.79676998 -0.34986001 -1.3336999 6 1.421 55
-0.68597001 -0.35457999 -1.3246 10 1.363 94
0.40722954 -0.35125113 -1.3271551 23.809525 1.3300855 572.79999
0.42931286 -0.35370567 -1.3237925 27.381819 1.3361998 581.98181
0.44343001 -0.351105 -1.32765 22.25 1.344625 587
-0.80439001 -0.33153501 -1.3315001 20 1.4189999 51
-0.7918933 -0.32677665 -1.3341001 6 1.4139999 55.666668
-0.70903999 -0.32356501 -1.33355 30 1.3740001 85.5
-0.69916999 -0.32010001 -1.3221999 12 1.359 87
0.39978001 -0.33230001 -1.3372999 20 1.332 569
0.40250894 -0.3299247 -1.3298512 18.039215 1.325804 571.35297
0.45339 -0.33142334 -1.3319334 11.333333 1.348 591
-0.70502996 -0.318315 -1.3264999 11 1.365 85.5
0.40263847 -0.31019711 -1.3292793 18.375 1.3210623 572.25
-0.80040002 -0.28532001 -1.3351001 18 1.411 51
0.40296772 -0.29133195 -1.3268191 19.307692 1.3151155 573.46155
0.46882999 -0.28312999 -1.3314 8 1.344 599
0.40447 -0.27112499 -1.3233334 16 1.3086667 575.33331
0.47648001 -0.27237001 -1.339 4 1.352 601
-0.81317002 -0.24786 -1.335 32 1.411 45
0.41399997 -0.25630498 -1.3364 16 1.3215001 577.5
-0.81594998 -0.23285 -1.3278 2 1.404 42
0.42201999 -0.22931001 -1.3395 14 1.323 581
0.47937 -0.23365 -1.3247 36 1.334 606
-0.74467999 -0.21198 -1.3383 23 1.375 69
0.48435 -0.21535 -1.322 4 1.331 609
-0.76138002 -0.1812 -1.3383 16 1.3789999 62
0.42791 -0.1876 -1.3247 18 1.306 587
0.49061 -0.18993001 -1.3228 12 1.331 612
0.43605 -0.17587 -1.3392 12 1.321 588
0.43823001 -0.15778001 -1.335 32 1.316 590
0.44036999 -0.14512999 -1.33 32 1.311 592
-0.85361999 -0.13011 -1.32785 12 1.4119999 26
0.44597501 -0.13357 -1.3353 8 1.3169999 593.5
-0.8567 -0.11898 -1.3246 0 1.41 24
-0.77373999 -0.1166 -1.3281 6 1.37 54
0.44766 -0.11283 -1.3298 8 1.311 595.5
0.45447999 -0.083001003 -1.3221999 22 1.3049999 600
-0.75796998 -0.076729998 -1.3273 10 1.359 59
0.46963999 -0.050620001 -1.3399 8 1.326 603
0.53694999 -0.045404002 -1.32865 14 1.346 631
-0.17039572 -0.032559432 -1.3265142 9.7142859 1.187143 314.57144
0.54935002 -0.0122638 -1.33005 13 1.3525 635.5
0.55127001 0.0029185 -1.3262 28 1.35 637
0.56487 0.041549001 -1.3306 0 1.3609999 641
0.59265 0.062545002 -1.3209 34 1.367 653
-0.88379002 0.095982 -1.33635 2 1.433 17
-0.86680001 0.10573 -1.3322999 0 1.421 22
-0.82015002 0.14782999 -1.3374 12 1.404 40
-0.77156997 0.18689001 -1.3335 2 1.3805 57.5
-0.74729222 0.19703835 -1.3253665 12.111111 1.3629998 65.055557
-0.72939324 0.19734468 -1.3250968 14.6 1.3543665 71.666664
-0.70923918 0.19720201 -1.3258598 15.04 1.3457201 79.400002
-0.69022512 0.19727261 -1.3253113 14.37037 1.3367037 86.555557
-0.6702655 0.19713001 -1.3256631 14.592592 1.3282592 94.333336
-0.6514377 0.19717364 -1.3255454 15.181818 1.3201363 101.68182
-0.63144106 0.19723749 -1.325525 16.571428 1.3118572 109.60714
-0.61104995 0.19765 -1.3263667 16.777779 1.3044999 117.94444
-0.58967233 0.19768968 -1.3262931 17.379311 1.2961724 126.62069
-0.56949115 0.19709705 -1.325737 18.148148 1.2880371 134.81482
-0.55056387 0.19666809 -1.3258076 17.23077 1.281231 142.69231
-0.52982199 0.19752879 -1.3266279 18.4 1.27492 151.56
-0.51103711 0.1971516 -1.3254721 20.32 1.26752 159.36
-0.49028301 0.19686778 -1.3248594 20.370371 1.2602961 168.18518
-0.46917406 0.19698876 -1.325253 20.5625 1.25425 177.40625
-0.45025569 0.19703192 -1.3257539 20.324324 1.249243 185.75676
-0.42988729 0.19739302 -1.3261727 20.90909 1.2440907 194.81818
-0.41113943 0.19654666 -1.3253514 22.181818 1.2383029 203.06061
-0.39094096 0.1969831 -1.325178 23 1.2332189 212.125
-0.37059754 0.19660792 -1.3259654 24 1.2292413 221.41379
-0.35044178 0.19672091 -1.3259364 24.90909 1.2249091 230.60606
-0.33011112 0.19641691 -1.3247666 26 1.219667 239.83333
-0.31003481 0.19632067 -1.3249065 26.580645 1.2161291 249.12903
-0.2901834 0.19601087 -1.3250657 26.628571 1.2129141 258.37143
-0.27017668 0.19637568 -1.3256433 27.200001 1.2105001 267.76666
-0.24997588 0.19691972 -1.3267472 27.647058 1.2089411 277.32352
-0.22965603 0.19619182 -1.3259366 27.333334 1.2056366 286.84848
-0.21052575 0.19610025 -1.3259976 26.9 1.2037251 295.89999
-0.1896835 0.19573048 -1.3266281 27.813953 1.2025117 305.81396
-0.1700934 0.19601342 -1.3279828 28.926828 1.2025365 315.17075
-0.15008749 0.19562501 -1.3264045 29.90909 1.1998637 324.65909
-0.12977296 0.19606127 -1.3271513 30.243902 1.1999513 334.36584
-0.10992499 0.19596052 -1.3266709 30.210526 1.199079 343.8421
-0.089664176 0.19584122 -1.3264824 30.049999 1.1988249 353.52499
-0.069429897 0.19600728 -1.3268811 29.891891 1.1995405 363.18918
-0.050194457 0.19599168 -1.3274431 29.904762 1.2006906 372.35715
-0.030117536 0.19596386 -1.3275025 29.846153 1.201692 381.92307
-0.010248339 0.19611411 -1.3270795 28.512821 1.2025642 391.38461
0.010317149 0.19597343 -1.3277246 27.95122 1.2048295 401.12195
0.02929474 0.19582856 -1.3267907 25.333334 1.2057383 410.14285
0.050837949 0.19574188 -1.3270928 24.571428 1.2084763 420.28571
0.069736078 0.19605924 -1.3279774 27.1 1.2118499 429.10001
0.089992858 0.19619706 -1.3277658 27.31579 1.2146056 438.57895
0.10981075 0.19583048 -1.3276514 25.560976 1.2176586 447.80487
0.12994656 0.19602513 -1.3278366 23.609756 1.221439 457.09756
0.14954515 0.19605514 -1.3271999 23.027027 1.2246214 466.16217
0.17036709 0.19606054 -1.3273288 23.052631 1.2291054 475.6579
0.19005461 0.19610743 -1.3277484 22.615385 1.2339486 484.53845
0.21008314 0.19564515 -1.3264048 23.365854 1.2374147 493.70731
0.23003285 0.19578898 -1.3270563 23.897436 1.2431539 502.53845
0.24952693 0.19573563 -1.3274051 24.461538 1.2487438 511.1282
0.27007976 0.19602053 -1.3278872 23.282051 1.2551024 520.0769
0.29023355 0.19541875 -1.3262275 23.799999 1.2594998 529.07501
0.30911395 0.19565292 -1.3278122 22.780487 1.2669511 536.97559
0.33001804 0.19610527 -1.3284556 21.166666 1.2744722 545.77777
0.3497805 0.19595201 -1.3286625 19.9 1.2814 554.07501
0.36991051 0.19569352 -1.3278625 19.4 1.2877749 562.59998
0.38943434 0.19547513 -1.3273306 22.76923 1.2944616 570.74359
0.4097195 0.19543234 -1.3270162 23.767443 1.3019302 579.06976
0.42943001 0.19546385 -1.327228 19.435898 1.3099232 586.97437
0.44343641 0.19578363 -1.3283273 8.181818 1.3166363 592.36365
-0.74749333 0.20285065 -1.3354199 10.4 1.3726002 67.133331
-0.73024005 0.20318645 -1.3354471 13.529411 1.3645881 73.529411
-0.71028346 0.20246501 -1.3344848 14.8 1.3545001 80.800003
-0.68920517 0.2031635 -1.3356608 15.217391 1.3462173 89.04348
-0.67005235 0.20303726 -1.3356863 15.181818 1.3379091 96.409088
-0.64871079 0.2026252 -1.334828 14.4 1.3280798 104.56
-0.63038278 0.20309603 -1.3350079 18.4 1.3208001 111.84
-0.60986793 0.20228782 -1.334174 17.391304 1.3117825 119.86957
-0.59016734 0.20335218 -1.3360697 17.826086 1.306087 128.17392
-0.56911755 0.20276105 -1.3348894 18.642857 1.2971071 136.57143
-0.54944235 0.2024219 -1.3350616 19.461538 1.2901922 144.73077
-0.53032303 0.20311306 -1.336031 19.923077 1.2846154 152.88461
-0.51060551 0.20279372 -1.335937 18.666666 1.2779632 161.18518
-0.48982427 0.20287384 -1.3358729 20.76923 1.2713462 170.03847
-0.46966797 0.20338663 -1.3356599 20.866667 1.2651334 178.7
-0.45051244 0.20310833 -1.3351332 21.333334 1.2590833 186.95833
-0.42987764 0.20274353 -1.3350823 21.882353 1.2533529 196
-0.41040644 0.20301907 -1.3361614 22.580645 1.2493871 204.74193
-0.38893521 0.20270304 -1.3361173 24 1.2440869 214.30435
-0.36999431 0.20222858 -1.3355678 24.142857 1.2391785 222.75
-0.35100174 0.20230086 -1.3351088 24.782608 1.2346956 231.30435
-0.32950106 0.2020274 -1.3358157 24.631578 1.2311052 241.1579
-0.31031406 0.2022315 -1.3358964 25.407408 1.2277405 249.96297
-0.29076692 0.20185694 -1.3357608 25.565218 1.2243043 258.95651
-0.26976594 0.20209554 -1.3360184 26.814816 1.2214445 268.7037
-0.24975239 0.20215905 -1.3357093 27.333334 1.2184763 278
-0.22953886 0.20213731 -1.33595 25.846153 1.216346 287.46155
-0.21073771 0.20192319 -1.3358636 25.272728 1.2143184 296.27274
-0.18996501 0.20137286 -1.3366214 28.142857 1.2132143 306.07144
-0.16920917 0.20097665 -1.3358666 30.333334 1.211 315.83334
-0.14872001 0.20144232 -1.3368462 29.384615 1.211 325.53845
-0.1287277 0.20127231 -1.3371847 26.153847 1.2106154 335
-0.109705 0.20160614 -1.3367612 24.333334 1.2098889 344
-0.090586454 0.2015245 -1.3367721 28.111111 1.2098334 353.05554
-0.068472587 0.20177002 -1.3366369 29.789474 1.2100527 363.52631
-0.050478868 0.20190609 -1.3365129 29.913044 1.2105217 372.04349
-0.028916053 0.20171222 -1.3369555 29.111111 1.2119445 382.22223
-0.011380156 0.20159562 -1.3367251 29 1.2128124 390.5
0.0090210298 0.2018891 -1.3369365 28.09091 1.2146819 400.09091
0.030498501 0.2017861 -1.3369443 26.333334 1.2167222 410.16666
0.050422106 0.20172499 -1.3376056 25.111111 1.219611 419.44446
0.069228627 0.2018331 -1.3377563 25.5 1.2221875 428.1875
0.090479791 0.20156428 -1.3372287 27 1.2247144 438.07144
0.11033084 0.20098834 -1.3359751 24 1.2265834 447.33334
0.12894501 0.20131664 -1.3364582 21.833334 1.2304165 455.83334
0.15186934 0.20154136 -1.3373734 21.466667 1.2357333 466.20001
0.17025775 0.20173334 -1.3376168 23.111111 1.2398334 474.5
0.18968143 0.20166001 -1.3378427 21.857143 1.2443571 483.21429
0.20931397 0.201502 -1.3370532 21.333334 1.2482666 492.06668
0.22874002 0.20143099 -1.3385599 23.200001 1.2545999 500.5
0.25010267 0.20158133 -1.3375666 21.866667 1.2594 510
0.27015528 0.20164353 -1.3373117 20.588236 1.2648236 518.76471
0.29038212 0.20157428 -1.3372428 21.428572 1.2707857 527.5
0.31146172 0.20132166 -1.33735 20.666666 1.2774166 536.5
0.32883179 0.20191175 -1.3374295 22.588236 1.2832353 543.82355
0.35282171 0.20157748 -1.3382334 19.833334 1.2920834 553.75
0.37043384 0.20172538 -1.3379308 18 1.2980769 561.0769
0.38978857 0.20151141 -1.33755 13 1.3047856 569.07141
0.4086673 0.20180635 -1.3385545 18 1.312909 576.54547
0.42817095 0.20125002 -1.3375546 15.272727 1.3195454 584.54547
0.44323251 0.2019425 -1.3389751 8.5 1.327 590.25
-0.17118335 0.23787169 -1.3391749 62.166668 1.2203333 315.16666
-0.15447666 0.23740333 -1.3391333 62 1.2193333 323
-0.20167001 0.25742 -1.3381 16 1.225 301
-0.18916827 0.25228786 -1.3356514 40.323231 1.2207074 306.71716
-0.16973856 0.25067794 -1.334214 59.463089 1.2176914 315.77182
-0.1509399 0.25151673 -1.3355672 55 1.2181888 324.63934
-0.13511182 0.25359932 -1.3371071 51.714287 1.2194827 332.10715
-0.20158888 0.27394554 -1.3337334 10 1.224 301
-0.19044463 0.26977491 -1.3277899 22.142857 1.2164717 305.96429
-0.17005113 0.26963902 -1.3252347 26.416666 1.2125486 315.47916
-0.14977369 0.26994723 -1.3266379 44.391304 1.2129269 325.07971
-0.13421528 0.27037981 -1.3307536 26.505262 1.2164638 332.48422
0.35784999 0.27673 -1.3369 0 1.3049999 554
-0.20130143 0.28940645 -1.3270501 14.857142 1.2206428 301
-0.19377144 0.28333178 -1.3228036 28.285715 1.2146071 304.32144
-0.1685769 0.28132614 -1.3220229 29.076923 1.2116923 316.15384
-0.150667 0.28216594 -1.3211801 52.799999 1.2100999 324.60001
-0.13280514 0.28700644 -1.3242785 28.964285 1.2135 333.10715
-0.20349249 0.31380251 -1.328375 12.5 1.2275 300.25
-0.20421751 0.3225075 -1.32855 7.5 1.2297499 300
-0.209006 0.379287 -1.32394 8.6000004 1.2401999 298.20001
-0.12718742 0.37905258 -1.3224447 6.8888888 1.2340001 336
-0.209785 0.38054335 -1.3274666 10.666667 1.244 298
-0.12649778 0.38160777 -1.3309278 10.5 1.2428334 336.41666
0.52227998 0.38157001 -1.3306 4 1.388 615
-1.0062 -0.62133002 -1.3049001 12 1.589 1
-0.98063999 -0.62001002 -1.3020999 10 1.572 8
-0.94365001 -0.62095004 -1.3018667 6.6666665 1.5516666 19.333334
-0.93195254 -0.62101752 -1.3034251 9 1.5465 23.25
-0.88496166 -0.62101835 -1.3025833 13.666667 1.521 38
-0.85080999 -0.62007999 -1.3023 12 1.503 49
-0.80789936 -0.62116283 -1.3021858 12.142858 1.4822856 63.42857
-0.79014641 -0.62089545 -1.3015819 13.454545 1.4732728 69.36364
-0.76727903 -0.62103099 -1.30294 13.8 1.4638001 77.5
-0.75107205 -0.62139404 -1.3017399 14.4 1.4556 83
-0.72925299 -0.62107199 -1.30172 14.4 1.4457999 90.699997
-0.71040624 -0.62094307 -1.3033308 13.384615 1.438923 97.692307
-0.68918431 -0.62177283 -1.3027357 14.714286 1.4298571 105.35714
-0.67007995 -0.62089002 -1.30065 15 1.4200001 112
-0.64959198 -0.62076503 -1.30141 13.6 1.4124 119.7
-0.62998998 -0.62077999 -1.30243 15.2 1.4057 127.2
-0.60945427 -0.62051857 -1.3036715 13.714286 1.3989999 135.14285
-0.58869761 -0.62089771 -1.3032235 14.470589 1.3912941 143.05882
-0.56900948 -0.62181371 -1.3015684 15.368421 1.3834209 150.52632
-0.55006433 -0.62181479 -1.302744 15.04 1.37808 158.08
-0.5280475 -0.62133503 -1.3049165 14.333333 1.3726667 167
-0.50634003 -0.62175626 -1.3029062 16 1.3644376 175.4375
-0.49066386 -0.62156332 -1.3028166 17 1.3596667 181.72223
-0.46994612 -0.62120163 -1.3024164 15.555555 1.3533334 190.05556
-0.45202118 -0.62208796 -1.3026199 15.68 1.3490399 197.44
-0.43067807 -0.62133652 -1.3039002 17.076923 1.3443847 206.30769
-0.40935743 -0.62181866 -1.3037974 15.743589 1.3393592 215.15384
-0.39070228 -0.62181431 -1.3033582 15.483871 1.334742 222.90323
-0.36898351 -0.62157387 -1.3048413 17.379311 1.3313447 232.13792
-0.34949329 -0.62250459 -1.3044755 15.777778 1.3275778 240.37778
-0.3287558 -0.62245595 -1.304652 15.88 1.32392 249.2
-0.31039122 -0.62222576 -1.3040696 16.976744 1.3202094 257
-0.28933358 -0.62252396 -1.3046374 16.791666 1.3176042 266.08334
-0.27052298 -0.6229071 -1.3049999 16.92 1.3154799 274.22
-0.24974507 -0.62258667 -1.3049747 17.09091 1.3127451 283.20001
-0.22872584 -0.62243146 -1.3052083 18.625 1.3106037 292.33334
-0.21039331 -0.62309813 -1.3053088 17.192982 1.3092631 300.33334
-0.19106692 -0.62239683 -1.3049519 18.5 1.3071153 308.75
-0.1689162 -0.62225789 -1.304312 18.523809 1.3050715 318.42856
-0.14885692 -0.62262708 -1.3060048 17.419355 1.3058065 327.25806
-0.12973762 -0.62277454 -1.3062296 17.411764 1.3054512 335.64706
-0.1111237 -0.62357771 -1.3054277 16.646154 1.3047384 343.8154
-0.090548627 -0.6232878 -1.3065506 18.766666 1.3055667 352.85001
-0.070197351 -0.62332505 -1.3054966 19.25 1.3048928 361.78571
-0.049435969 -0.62305939 -1.3059016 19.535715 1.305732 370.89285
-0.0296675 -0.62317538 -1.3067491 19.63077 1.3074152 379.53845
-0.010759257 -0.62380463 -1.3065357 18 1.3086048 387.80264
0.010924395 -0.6235764 -1.3073986 17.493334 1.3108929 397.23999
0.030475715 -0.62427062 -1.3068275 16.657143 1.3124285 405.75714
0.049472786 -0.62322903 -1.3069466 17.727272 1.3140761 414.01514
0.07040146 -0.62388492 -1.3067884 18.666666 1.3167104 423.05798
0.090890244 -0.62451947 -1.3069154 20.23077 1.3198464 431.85898
0.10939586 -0.62388623 -1.3077627 21.200001 1.3230999 439.76251
0.13012658 -0.62419564 -1.3084917 20.794521 1.3272741 448.54794
0.15021122 -0.62416434 -1.3089498 22.333334 1.3312502 457.03571
0.17109743 -0.62501895 -1.3083791 18.902439 1.3351464 465.85367
0.18999046 -0.6250689 -1.3080152 18.83721 1.3387669 473.80234
0.21035047 -0.62482315 -1.308301 18.719101 1.3434272 482.26965
0.22996256 -0.62441683 -1.3086596 20.404495 1.348191 490.37079
0.24986252 -0.62466711 -1.3091719 19.483147 1.3537078 498.48315
0.26987547 -0.62479842 -1.3088397 19.440861 1.3587425 506.66666
0.29042879 -0.62557143 -1.3091667 19.913979 1.365032 514.9032
0.31017786 -0.62503839 -1.3090137 20.5 1.3704208 522.86365
0.33045256 -0.62548149 -1.3096752 18.741573 1.3773253 530.82025
0.35019499 -0.62503904 -1.3101466 18.119047 1.3838098 538.55951
0.36951193 -0.62531435 -1.3094612 19.741177 1.3896941 546.16473
0.38979223 -0.62523347 -1.3090751 18.943821 1.396281 554.05615
0.40951675 -0.62549382 -1.3093549 19.191011 1.403618 561.55054
0.43000585 -0.62570912 -1.3095318 19.477272 1.4113749 569.27271
0.44949991 -0.62579167 -1.3098588 17.880953 1.419071 576.5238
0.46939713 -0.62552339 -1.3090526 18.357895 1.4260843 584.03156
0.49009892 -0.6256687 -1.3095716 17.954546 1.4349092 591.53412
0.50994027 -0.62575543 -1.3092818 17.180723 1.4429399 598.75903
0.53013331 -0.62590718 -1.3090804 15.782609 1.4514452 606.01086
0.55059868 -0.62640411 -1.3099334 16.94253 1.4612873 613.08044
0.56977671 -0.62625897 -1.309782 16.560976 1.4697077 619.81708
0.59040105 -0.62681133 -1.3095409 14.755555 1.4791999 626.93335
0.61051792 -0.62643498 -1.3104156 14.289157 1.4892045 633.67468
0.63047719 -0.62665188 -1.3099414 14.878049 1.4984999 640.45123
0.64998347 -0.62640494 -1.3098875 15.150685 1.5079319 646.95892
0.67010713 -0.62691617 -1.3102419 14.159091 1.5184661 653.45453
0.68996519 -0.62715691 -1.3102602 13.763158 1.5286968 659.85529
0.7102952 -0.62782574 -1.3093734 13.581395 1.5388253 666.44183
0.72986174 -0.62774813 -1.3098735 12.906667 1.5495335 672.52002
0.75009471 -0.62768298 -1.3100365 13.170732 1.5605246 678.78052
0.77092713 -0.62788194 -1.3096597 13.283582 1.5717164 685.20898
0.79043865 -0.62728333 -1.31092 12.533334 1.5833067 690.91998
0.80805492 -0.62711561 -1.3114282 11.964912 1.5935615 696.08771
-1.0048513 -0.6132316 -1.3121305 11.939394 1.590788 2.030303
-0.98956519 -0.61377341 -1.3100222 12.921053 1.5807374 6.2368422
-0.97029591 -0.61381078 -1.3100023 13.066667 1.5699335 12.04
-0.94955832 -0.6135307 -1.3084273 9.5 1.5572047 18.068182
-0.93277627 -0.61187625 -1.3103243 9.4482756 1.548931 23.465517
-0.9070434 -0.61082131 -1.3119613 12.285714 1.5360818 31.755102
-0.88978887 -0.61357862 -1.310461 13.902439 1.5268899 37.219513
-0.87000966 -0.61407763 -1.3106681 13.722222 1.5170554 43.680557
-0.85304964 -0.61343426 -1.3103755 12.612245 1.5080202 49.122448
-0.83527321 -0.61123574 -1.30905 14.533334 1.4973332 54.599998
-0.81083846 -0.61370218 -1.3111365 12.727273 1.4880111 63.340908
-0.79036188 -0.61485535 -1.3104744 11.643836 1.4782051 70.287674
-0.77020538 -0.61487019 -1.3106054 13.105263 1.4689609 77.25
-0.75022364 -0.61467493 -1.3106172 13.744186 1.4598488 84.209305
-0.72987908 -0.61463118 -1.3105203 13.388235 1.4507644 91.376472
-0.71004438 -0.61500466 -1.3115667 13.135802 1.4432225 98.65432
-0.69022769 -0.61525267 -1.3107585 14 1.4343505 105.71429
-0.6700685 -0.61510563 -1.3098159 13.901235 1.4252843 112.93827
-0.65013319 -0.61517626 -1.3108521 13.563218 1.4182875 120.47127
-0.62958741 -0.61508107 -1.3106004 13.846154 1.4101413 128.11539
-0.61062819 -0.61527652 -1.3109902 14.95 1.4034998 135.35001
-0.59006041 -0.61539167 -1.3110931 14.24 1.3962402 143.22667
-0.56976479 -0.61483836 -1.3108011 14.698795 1.3887348 150.98795
-0.55062926 -0.61524773 -1.3116667 14.91954 1.3832415 158.57471
-0.53023267 -0.61540419 -1.3115096 14.682927 1.3766098 166.58537
-0.51020283 -0.61564571 -1.310841 15.469879 1.3699639 174.46988
-0.48962063 -0.61583477 -1.3114074 15.725 1.3644623 182.78751
-0.46990833 -0.61544454 -1.3117617 15.483146 1.3590672 190.76404
-0.44917426 -0.61605597 -1.3121688 15.125 1.3541379 199.27499
-0.43030345 -0.61597824 -1.3130918 15.20548 1.3501236 207.09589
-0.41001624 -0.61575353 -1.3126607 15.565217 1.3447831 215.42029
-0.38969243 -0.61629778 -1.313776 15.063292 1.3414183 223.98734
-0.37032276 -0.61667544 -1.3126967 16.430769 1.3365227 232.01538
-0.34995696 -0.61573142 -1.3139558 15.970589 1.3332354 240.64706
-0.33046478 -0.61699301 -1.3133659 15.857142 1.3296787 248.89285
-0.31043464 -0.61659908 -1.3138001 16.825397 1.3265238 257.42856
-0.2904644 -0.61624283 -1.3130717 16.088236 1.3226614 265.91177
-0.2695111 -0.61686289 -1.3145467 16.032259 1.3213384 275
-0.2501536 -0.61687666 -1.3137569 15.735849 1.3182451 283.30188
-0.23018958 -0.61677575 -1.3138872 18.63492 1.3161591 291.93649
-0.20911849 -0.61658084 -1.3145248 17.547171 1.3146794 301.09433
-0.19007222 -0.61673158 -1.3145463 18.206896 1.3132757 309.3793
-0.16990173 -0.61720437 -1.3139154 17.692308 1.3116312 318.15384
-0.15022174 -0.61684161 -1.3153176 16.980392 1.3118038 326.76471
-0.13083902 -0.61706799 -1.315421 17.5 1.3113463 335.23077
-0.11048414 -0.61716127 -1.3145242 17.448277 1.3102067 344.1207
-0.090326928 -0.61789143 -1.3147686 18.375 1.3106875 352.9375
-0.069782734 -0.61807704 -1.3141673 18.653061 1.31049 361.91837
-0.049836494 -0.61790729 -1.3156 20.045454 1.3122727 370.61365
-0.03097406 -0.61736006 -1.3157682 20.363636 1.3130002 378.84091
-0.011124562 -0.6172567 -1.3164723 18.468084 1.3147447 387.46808
0.0094743334 -0.61782169 -1.3158001 16.285715 1.3158858 396.42856
0.030001355 -0.61837244 -1.3156031 16.967741 1.3177741 405.32257
0.051201262 -0.61760634 -1.3163328 18.651163 1.320302 414.46512
0.070427813 -0.61832184 -1.3161159 18.947369 1.3227108 422.73685
0.088409893 -0.61797696 -1.3165077 19.897436 1.3253075 430.43588
0.11110305 -0.61820912 -1.3163739 20.782608 1.328652 440.13043
0.12759207 -0.61873746 -1.3162998 22.083334 1.3314999 447.125
0.15024449 -0.61837345 -1.317255 20 1.3362001 456.64999
0.16704428 -0.61889714 -1.3163286 20 1.3388096 463.7619
0.19063172 -0.61818582 -1.3171277 19.931034 1.344069 473.58621
0.20821166 -0.61883891 -1.3167666 18.555555 1.3478889 480.88889
0.22636725 -0.61887723 -1.3179729 20.181818 1.3531817 488.27274
0.24676308 -0.61859542 -1.3182229 20 1.3583077 496.61539
0.27307501 -0.61860496 -1.3178835 19.833334 1.3649167 507.33334
0.29247072 -0.61872071 -1.3178214 19.142857 1.3702857 515.14288
0.31457427 -0.61770141 -1.3179429 19.714285 1.3764286 524
0.329106 -0.61843199 -1.3177733 17.866667 1.3810002 529.73334
0.34786832 -0.61898917 -1.3184 19.666666 1.3876666 537
0.36697996 -0.61876446 -1.3184779 20.222221 1.393889 544.44446
0.39394999 -0.61845499 -1.31735 18 1.402 555
0.41381666 -0.61885667 -1.3163778 18.888889 1.4084444 562.66669
0.43331668 -0.61908889 -1.3172556 18.666666 1.4164444 569.88892
0.45179635 -0.61879277 -1.3178092 17.272728 1.4238181 576.72729
0.46553335 -0.61934996 -1.3185667 17.333334 1.4299999 581.66669
0.49528199 -0.61936599 -1.31812 16.4 1.4416 592.59998
0.50799102 -0.61891496 -1.3182399 18.4 1.4468 597.20001
0.52832001 -0.61884499 -1.3180499 14.75 1.4552499 604.5
0.54692501 -0.61870998 -1.31865 16.5 1.46375 611
0.57213837 -0.61897832 -1.3172499 15.666667 1.474 620
0.59247667 -0.61922663 -1.3171333 17.333334 1.4833332 627
0.61235499 -0.61994499 -1.3153 16 1.4915 634
0.62884998 -0.61992002 -1.3186001 18 1.502 639
0.66654003 -0.61993003 -1.3153 16 1.518 652
0.79325002 -0.61992002 -1.3186001 14 1.5880001 691
0.811526 -0.61873603 -1.3182 11.2 1.5976 696.59998
-0.93563336 -0.59445667 -1.3133668 9.333333 1.5466666 21.666666
-0.91124725 -0.58863813 -1.3116999 8.363636 1.530273 28.545454
-0.83456999 -0.59052002 -1.3122749 20 1.4920001 53.75
-0.80856115 -0.58882445 -1.3093889 16 1.4764445 61.888889
-0.79773998 -0.58134997 -1.30935 14 1.4685 65
-0.90443856 -0.57275856 -1.3101286 6.5714288 1.5200001 29.142857
-0.89621335 -0.56417996 -1.3096 14 1.5123334 31
-0.84078002 -0.57929999 -1.3134 14 1.492 51
-0.82620502 -0.57507002 -1.3073499 16 1.4785 54.5
-0.7858175 -0.56892848 -1.309145 18 1.4583001 68.150002
-0.77657002 -0.56035 -1.3166 24 1.457 72
-0.90657997 -0.54552001 -1.3139 22 1.515 27
-0.88868797 -0.54935402 -1.306 8 1.5006001 31.6
-0.82084 -0.55817997 -1.3186001 30 1.479 57
-0.81436002 -0.54874498 -1.30715 17 1.4635 56.5
-0.78069001 -0.55993003 -1.3193001 6 1.461 71
-0.77749997 -0.55848998 -1.3193001 6 1.459 72
-0.90008003 -0.53684002 -1.3116 16 1.507 28
-0.88853002 -0.53325999 -1.3145 30 1.502 32
-0.87195998 -0.52793503 -1.3010499 8 1.4809999 34.5
-0.81244999 -0.52635998 -1.3098999 22.666666 1.4573334 56
-0.87136006 -0.5105167 -1.3105 5.3333335 1.4826669 35.166668
-0.82756996 -0.51346004 -1.31585 16 1.4655 51
-0.81594503 -0.50844002 -1.307 17 1.451 53
-0.87068003 -0.49582997 -1.3140666 11.333333 1.4806666 35
-0.82183999 -0.49987999 -1.3104 16 1.454 51
-0.8058033 -0.48545 -1.3075333 28.666666 1.4393333 55
-0.70710999 -0.48120713 -1.3190143 24.571428 1.4017143 92
-0.84345001 -0.47767001 -1.3151 0 1.462 43
-0.83807999 -0.46086001 -1.301 0 1.443 41
-0.80760998 -0.47330999 -1.3154 10 1.443 55
-0.70805311 -0.46951815 -1.3141634 25.174603 1.3944763 90.126984
-0.68914413 -0.46870205 -1.3144928 27.407408 1.3863332 97.160492
-0.6781953 -0.46584862 -1.3167465 26.533333 1.3827335 101.46667
-0.82441002 -0.45547 -1.3152 0 1.446 48
-0.81119001 -0.45594999 -1.3121001 12 1.437 52
-0.72069001 -0.44588 -1.3081 6 1.388 83
-0.70879143 -0.45181653 -1.304817 25.74074 1.381611 87.185188
-0.68945891 -0.45097047 -1.3049935 28.179487 1.3730644 94.397438
-0.67803186 -0.44827104 -1.3114132 24.695652 1.3728695 99.630432
-0.80787998 -0.42379001 -1.3115 24 1.426 51
-0.79833996 -0.43123001 -1.30995 12 1.4220001 54.5
-0.72705495 -0.43798 -1.31275 18 1.3925 81
-0.68381333 -0.43649003 -1.3049001 28 1.3663334 95.666664
-0.67721981 -0.43087614 -1.3106899 24.530613 1.3668979 98.836731
-0.80239999 -0.40656 -1.3069 8 1.415 51
-0.78478336 -0.40959001 -1.3047667 9.333333 1.4053334 57
-0.72981 -0.40744999 -1.3005 26 1.375 76
-0.68037999 -0.41068 -1.3018 20 1.355 95
-0.67745841 -0.41111204 -1.3078715 24.285715 1.3591022 97.18367
-0.80410504 -0.38945499 -1.3075 6 1.4119999 49.5
-0.79010499 -0.39675498 -1.3082 15 1.4075 55
-0.68167502 -0.39548999 -1.318 22 1.3655 96.5
-0.67741078 -0.39020538 -1.3053267 22.76923 1.3513463 95.653847
-0.78982002 -0.37524 -1.3105333 12 1.4039999 54.333332
-0.77301669 -0.37262332 -1.3096 16.666666 1.3943334 60
-0.7579 -0.36054 -1.3105 4 1.385 65
-0.67611909 -0.37408638 -1.3050545 18.545454 1.3464546 95.272728
-0.79057002 -0.35237002 -1.3096999 12 1.3983334 52.666668
-0.76557004 -0.34526002 -1.3108499 14 1.3855 61.5
-0.67502499 -0.35991001 -1.31075 26 1.3475 96
0.41248792 -0.34412602 -1.3178715 27.5 1.3221072 576.67859
0.43042481 -0.34440628 -1.3180314 27.942858 1.3293431 583.77142
0.44088998 -0.34160331 -1.3181667 24.666666 1.3329999 588
-0.79302597 -0.33555397 -1.3101001 18 1.3961999 51
-0.77768999 -0.32449001 -1.3003 22 1.378 54
-0.69260001 -0.32348999 -1.3103499 10 1.3464999 87.5
0.40948498 -0.32974824 -1.310823 26.209524 1.3113716 577.21906
0.42973357 -0.33003953 -1.3108453 26.946236 1.3194087 585.31183
0.44223583 -0.32963747 -1.3140084 25.333334 1.3271667 589.75
-0.78151 -0.31810001 -1.3139 2 1.39 55
-0.77430499 -0.31239498 -1.3046999 11 1.3775001 55.5
-0.70375001 -0.31584999 -1.3163 34 1.355 84
-0.695005 -0.31233001 -1.3072 22 1.3425 85.5
0.40605211 -0.31208801 -1.3078359 22.024691 1.303494 577.03705
0.43126065 -0.31469351 -1.3023915 27.782608 1.3091304 588
0.44492626 -0.31083 -1.306625 18.5 1.3176249 592.875
-0.78744 -0.28193 -1.3128 6 1.385 51
-0.70411503 -0.28710502 -1.3048999 8 1.3395 80.5
0.40273979 -0.28988642 -1.3099759 18.639999 1.29954 576.17999
0.45831001 -0.29260999 -1.3174 8 1.329 597
0.40271258 -0.27095172 -1.3093023 20.173914 1.2952607 576.95654
-0.79561502 -0.247805 -1.30955 17 1.3805001 46
-0.72131997 -0.25668001 -1.3164999 6 1.352 75
-0.71220499 -0.25707999 -1.3011501 30 1.3345001 75.5
0.40282598 -0.25202551 -1.3059599 20.299999 1.2888501 578.20001
0.45951 -0.25977999 -1.3046 14 1.312 601
0.46533 -0.245205 -1.3063 25 1.3135 603.5
-0.72584999 -0.23620999 -1.3162 7 1.3505 72.5
0.40615249 -0.23290749 -1.30545 18 1.2865 580.25
-0.81190997 -0.20375 -1.3067 6 1.38 38
0.41354665 -0.21551333 -1.3138666 8.666667 1.2943333 582.33331
0.47560999 -0.20615 -1.3052 34 1.311 609
0.48041999 -0.20886 -1.3148 8 1.322 609
-0.73752999 -0.19665501 -1.317 20 1.351 67
0.41661 -0.18729 -1.3044 10 1.283 586
0.42429 -0.18109 -1.3173 12 1.2970001 587
0.48752001 -0.18780001 -1.3167 28 1.324 612
-0.74423665 -0.17199667 -1.3063999 16.666666 1.342 61.666668
-0.82876998 -0.14698 -1.3003 6 1.377 29
-0.75309998 -0.15501 -1.3116 6 1.349 59
0.42561999 -0.15834001 -1.3063999 20 1.285 590
0.49882001 -0.15321 -1.3076 0 1.317 619
0.50221997 -0.11842 -1.3027 32 1.311 622
-0.75632 -0.067867003 -1.3103 6 1.3430001 56
0.45102999 -0.063942 -1.3105 8 1.2920001 601
-0.87936997 -0.032451998 -1.3147 26 1.41 13
-0.16957951 -0.030814096 -1.3092449 12.2 1.1697999 314.45001
0.46004999 -0.012822 -1.3099999 0 1.294 605
0.55044001 0.01372 -1.3198 2 1.344 638
0.54282999 0.022569999 -1.301 28 1.324 639
-0.89576 0.072678 -1.3153 0 1.421 8
-0.81449997 0.14050999 -1.3193001 0 1.385 38
-0.79545999 0.14964999 -1.3051 2 1.364 42
-0.77447999 0.17156 -1.309 2 1.359 51
-0.15633 0.17964 -1.3002 26 1.1720001 321
-0.085795499 0.1797 -1.3006999 17 1.171 355.5
0.0332525 0.17967501 -1.3005 29 1.178 413.5
0.054049499 0.17974499 -1.301 28 1.181 423.5
0.099041 0.1798 -1.3013999 28 1.188 445
0.10329666 0.17984335 -1.3017334 27.333334 1.189 447
0.13278 0.17974667 -1.3010334 26 1.1936667 461
0.15183 0.17902499 -1.30065 29 1.197 470
0.20695001 0.17973 -1.3009 28 1.21 495.5
0.23345 0.17981 -1.30145 23 1.2175 507.5
0.27427 0.17964 -1.3002 28 1.228 526
0.29473001 0.17924666 -1.3006333 29.333334 1.2346667 535
0.30900165 0.17976667 -1.3011833 27.666666 1.2398332 541.16669
0.33125749 0.17983249 -1.301625 25 1.24775 550.75
0.35043776 0.17981444 -1.3015112 23.555555 1.2543334 559
0.36989999 0.17975168 -1.3010833 22.666666 1.261 567.33331
0.39063999 0.179775 -1.30125 23 1.2690001 576
0.41745999 0.17985 -1.3017666 20 1.2800001 587
0.43299598 0.17979999 -1.30142 18.799999 1.286 593.40002
0.44521198 0.17897001 -1.3012199 10.4 1.2908 598.40002
-0.74798733 0.18858729 -1.3115077 10.615385 1.3502309 61.76923
-0.72976464 0.18826662 -1.309548 14.791667 1.3397917 68.1875
-0.71072894 0.18846348 -1.3098654 14.304348 1.3312176 75.478264
-0.68974197 0.18833305 -1.3097713 14.734694 1.3215714 83.530609
-0.66952312 0.18778957 -1.3092843 15.45098 1.3121176 91.313728
-0.65029842 0.18822588 -1.3099869 15.925926 1.3045371 99.055557
-0.62989694 0.18808785 -1.3101745 15.890909 1.2961637 107.25455
-0.61008859 0.18915206 -1.3112445 17.925926 1.2892592 115.5
-0.59040999 0.18841168 -1.3101547 18.533333 1.2804669 123.36667
-0.56973809 0.18810722 -1.3095613 18.592592 1.2720556 131.85185
-0.5491367 0.18824451 -1.3097392 19.450981 1.2647254 140.54903
-0.53013313 0.18812899 -1.3100933 19.466667 1.2583671 148.68333
-0.50952369 0.18814163 -1.3100706 19.90164 1.2514098 157.54099
-0.48950261 0.18823291 -1.3102778 20.542374 1.2451524 166.27118
-0.47049448 0.18786998 -1.3100356 21.535715 1.2390177 174.57143
-0.44985202 0.18777642 -1.3093151 21.094339 1.2322639 183.62263
-0.42965347 0.18796112 -1.3104422 20.838709 1.2277257 192.80646
-0.4098866 0.18730803 -1.309268 22 1.2213036 201.57143
-0.38979146 0.18771999 -1.3096515 23.548388 1.216742 210.7742
-0.36989394 0.18771902 -1.3102609 23.508196 1.2126887 219.96721
-0.34967813 0.18760866 -1.3102509 23.864407 1.2082711 229.30508
-0.33023354 0.18741395 -1.3093731 25.071428 1.2034823 238.26785
-0.31007731 0.18747325 -1.3106452 26.387096 1.2009839 247.82259
-0.28973693 0.18677181 -1.3089608 26.491804 1.1958036 257.2623
-0.26974079 0.18723592 -1.3104795 27.647058 1.1942936 266.85294
-0.24949403 0.187874 -1.3108634 28.066668 1.1919998 276.51666
-0.22969937 0.18729556 -1.3105509 28.793652 1.1892382 285.95239
-0.2094992 0.18629158 -1.3097095 28.71875 1.1861875 295.59375
-0.19051297 0.18640317 -1.3101034 28.666666 1.1849474 304.75439
-0.17001402 0.18592632 -1.3095371 28.838709 1.1828707 314.62903
-0.14981923 0.18603949 -1.3095757 28.387096 1.181855 324.40323
-0.13022262 0.18667921 -1.310051 28.415094 1.181698 333.90567
-0.10998435 0.18668807 -1.3107044 28.612904 1.1819519 343.7258
-0.089682914 0.18686451 -1.3109652 26.6875 1.1821873 353.5625
-0.069798052 0.18660709 -1.3105865 27.896551 1.1820691 363.20691
-0.050055854 0.18707697 -1.3113447 28.964285 1.1834999 372.75
-0.029481748 0.18639885 -1.3103194 28.774193 1.1833869 382.7258
-0.0098878825 0.18641707 -1.3101387 28.580645 1.1844839 392.19354
0.0096286414 0.18614867 -1.3099256 28.372881 1.1858305 401.61017
0.030158252 0.18595621 -1.3096409 26.09091 1.1875452 411.48486
0.049353741 0.18593532 -1.3101082 21.4 1.1902165 420.64999
0.069731101 0.18615998 -1.3103907 28.5 1.1932032 430.34375
0.089740336 0.1864263 -1.3103895 26.892307 1.1962 439.83078
0.11018782 0.18584532 -1.3097985 25.833334 1.1989001 449.53333
0.13029879 0.18595846 -1.3098139 26.030769 1.2025692 458.96924
0.15078501 0.18651731 -1.3104814 25.4 1.2073333 468.45001
0.16962501 0.18620066 -1.3101081 25.266666 1.2109334 477.21667
0.1902076 0.18623619 -1.3107985 26.349207 1.2163017 486.60318
0.2103938 0.18578878 -1.3097949 26.586206 1.2202069 495.93103
0.23013248 0.18608634 -1.310623 25.964912 1.226158 504.75439
0.25030833 0.18600304 -1.3107965 30.135593 1.2318473 513.77966
0.27002618 0.18611239 -1.3109467 28.862068 1.2377067 522.51721
0.28965461 0.18579222 -1.3109111 28.222221 1.2435927 531.16669
0.31053784 0.18603393 -1.3104589 27.071428 1.2498572 540.32141
0.33006153 0.18626375 -1.3113246 26.113207 1.2571886 548.60376
0.35024127 0.18600564 -1.3111527 26.181818 1.2640001 557.23639
0.37003762 0.1856453 -1.310102 23.843138 1.2701176 565.76471
0.39069435 0.18600999 -1.3108168 24.333334 1.2785623 574.25
0.41020918 0.18554688 -1.3098874 21.708334 1.2852291 582.45831
0.43113735 0.1859252 -1.311044 21.559999 1.2947198 590.76001
0.44278169 0.18593222 -1.308939 9.8888893 1.297611 595.83331
-0.18485999 0.27620998 -1.3189334 32 1.2086667 308.33334
-0.16891126 0.27609751 -1.3188375 21.5 1.2074999 315.875
-0.151815 0.2789475 -1.3191501 50 1.2075 324
-0.20069 0.29693002 -1.3181 29 1.2135 301
-0.18887809 0.29157713 -1.3144169 37.439999 1.2078241 306.392
-0.16998443 0.29052854 -1.3144934 36.026142 1.2063857 315.33334
-0.14996418 0.29068911 -1.3152863 48.949642 1.206144 324.84891
-0.13532408 0.29455736 -1.3150762 54.619049 1.2062143 331.80951
-0.20054778 0.31137612 -1.3116057 30 1.2104445 300.94446
-0.18967634 0.30987018 -1.3058332 37.411766 1.2036253 305.86029
-0.17001508 0.30951184 -1.3049866 35.621212 1.2013638 315.17426
-0.15010497 0.31033647 -1.3062524 42.939026 1.2017442 324.68903
-0.13384987 0.31044516 -1.3090516 48.277229 1.2038715 332.47525
-0.20249948 0.32993108 -1.3077948 6.6315789 1.2113156 300.05264
-0.19116701 0.32265109 -1.3016667 33.703705 1.2027036 305.11111
-0.17308216 0.32181644 -1.302043 22.857143 1.2015713 313.71429
-0.14756347 0.32333738 -1.3014131 44.260868 1.2 325.86957
-0.13195102 0.32615355 -1.3034457 43.083332 1.2020835 333.35416
-0.20246001 0.34687001 -1.30162 8.8000002 1.2096001 300
-0.12858 0.349805 -1.3004501 31 1.2049999 335
-0.20701689 0.37689269 -1.3149536 12.711111 1.2307556 298.73334
-0.12847242 0.37587509 -1.3115579 10.177778 1.2226888 335.26666
-0.18956 -0.64055002 -1.2816 22 1.294 309
-0.084656999 -0.64151502 -1.2803 19 1.29 355.5
-0.061021 -0.64002001 -1.2805001 20 1.29 366
-0.042978 -0.64019001 -1.2809 22 1.291 374
0.0030369665 -0.64103669 -1.2814666 20.666666 1.2946666 394.33334
0.027464001 -0.64033997 -1.2843 16 1.299 405
0.045395002 -0.64161998 -1.2805001 18 1.298 413
0.076351002 -0.64065504 -1.2818 23 1.3025 426.5
0.090008497 -0.64024496 -1.2809999 21 1.3034999 432.5
0.10216001 -0.64110756 -1.281075 20.5 1.30575 437.75
0.12846 -0.64068854 -1.2809286 22.857143 1.3097143 449.14285
0.15143 -0.64168 -1.2806 24 1.314 459
0.1746625 -0.64170247 -1.28105 18 1.3190001 468.875
0.18821201 -0.640876 -1.2840999 18.799999 1.3241999 474.39999
0.20665859 -0.64046139 -1.2813857 18.571428 1.3257142 482.42856
0.23191907 -0.64111269 -1.2820998 20.545454 1.3326364 492.90909
0.24837402 -0.64039499 -1.2819101 19.200001 1.3363 499.79999
0.27219376 -0.64112377 -1.2814876 18.25 1.342625 509.625
0.29256231 -0.64140838 -1.2815385 20 1.3485385 517.9231
0.30809385 -0.64126003 -1.2822154 20.615385 1.3536154 524.15387
0.32709911 -0.64135188 -1.282009 19.818182 1.3592727 531.81818
0.34819844 -0.64113158 -1.2835474 20.31579 1.3672106 540.05261
0.36797413 -0.64071411 -1.2832166 19.166666 1.3733335 547.91669
0.3900975 -0.640535 -1.2827251 19.25 1.3805 556.625
0.40881279 -0.64132106 -1.2825611 20.111111 1.3873888 563.83331
0.4271594 -0.64134997 -1.2819438 19.5 1.3936875 570.9375
